124.255,102.868,-1454.08
124.303,100.907,-1452.64
124.191,99.8052,-1450.33
124.173,98.2969,-1451.88
124.273,96.9456,-1447.95
124.144,96.0178,-1447.28
124.464,95.3648,-1453.13
124.068,88.404,-1445.04
124.183,86.3681,-1439.25
123.985,85.1814,-1434.03
123.922,82.8813,-1430.5
123.797,81.8114,-1427.23
124.016,80.336,-1432.18
123.3,30.3513,-1412.24
109.096,29.3316,-1408.07
109.064,28.7443,-1406.99
109.225,28.1187,-1407.19
109.16,27.2205,-1403.54
109.265,26.5295,-1404.27
109.358,25.7338,-1405.69
109.353,24.9998,-1402.55
109.442,24.0598,-1401.59
109.376,23.2006,-1400.43
109.439,22.4687,-1401.05
109.363,21.7472,-1398.73
109.451,21.1852,-1399.86
109.364,20.4606,-1396.77
109.446,19.6586,-1395.24
109.637,18.9457,-1395.55
109.709,18.1353,-1395.83
109.733,17.261,-1393.1
109.88,16.4913,-1393.48
109.909,15.6536,-1391.97
109.911,14.8682,-1390.37
109.993,14.1702,-1390.37
109.991,13.4935,-1388.9
110.002,12.793,-1388.32
109.965,12.0322,-1385.92
109.995,11.318,-1385.4
110.063,10.4935,-1385.27
110.064,9.70606,-1383.84
110.086,8.91306,-1382.77
110.144,8.14012,-1382.2
110.1,7.32801,-1380.38
110.159,6.63873,-1380.23
106.167,-92.663,-1309.04
109.801,-89.9805,-1259.47
109.827,-90.6975,-1258.2
109.842,-91.4269,-1257.6
109.856,-92.1562,-1256.81
109.812,-92.7939,-1255.33
109.801,-93.3904,-1254.26
109.828,-94.0336,-1253.99
109.805,-94.5278,-1252.75
109.802,-95.2227,-1252.36
109.793,-95.9128,-1250.86
109.848,-96.8327,-1250.53
109.501,-105.417,-1242.92
109.797,-105.98,-1238.46
109.82,-106.616,-1237.67
109.837,-107.185,-1236.73
109.842,-107.762,-1235.99
109.801,-108.342,-1234.97
109.839,-109.091,-1234.84
109.853,-109.748,-1233.54
109.853,-110.491,-1233
109.841,-111.106,-1231.88
109.816,-111.783,-1230.48
109.858,-112.471,-1229.9
109.862,-113.152,-1229.51
109.872,-113.731,-1228.88
109.918,-114.3,-1227.97
109.89,-114.924,-1227.36
109.922,-115.714,-1227.34
109.832,-116.297,-1225.39
109.862,-116.963,-1224.55
109.849,-117.674,-1223.4
109.822,-118.38,-1222.98
109.771,-119.061,-1221.3
109.759,-119.7,-1221.82
109.699,-120.212,-1220.34
109.716,-120.878,-1220.99
109.749,-121.476,-1220.13
109.712,-121.982,-1217.94
109.811,-122.739,-1217.25
109.835,-123.467,-1216.85
109.828,-124.099,-1215.43
109.825,-124.779,-1214.63
109.853,-125.469,-1213.6
109.873,-126.137,-1213.57
109.882,-126.643,-1212.29
109.892,-127.207,-1211.63
109.903,-127.879,-1211.44
109.92,-128.605,-1211
109.908,-129.22,-1209.54
109.859,-129.875,-1208.84
109.942,-130.626,-1208.32
109.911,-131.3,-1206.9
109.899,-131.872,-1205.78
109.888,-132.457,-1204.6
109.829,-132.849,-1202.98
109.88,-133.452,-1202.42
109.881,-134.207,-1202.71
109.914,-134.747,-1201.52
109.947,-135.501,-1201.09
109.87,-136.112,-1199.14
109.943,-136.95,-1199.58
109.996,-137.764,-1199.54
109.995,-138.288,-1197.9
110,-138.868,-1196.79
110.037,-139.384,-1196.36
110.009,-140.004,-1195.19
110.03,-140.648,-1195.15
110.012,-141.22,-1193.64
110.032,-141.982,-1193.08
110.048,-142.659,-1192.37
110.025,-143.283,-1190.96
110.04,-143.964,-1189.94
110.091,-144.728,-1190.11
110.066,-145.163,-1188.47
110.058,-145.735,-1187.39
110.064,-146.369,-1187.55
110.053,-146.891,-1186.14
110.074,-147.663,-1186.26
110.068,-148.379,-1184.84
110.05,-149.076,-1183.19
110.123,-149.906,-1182.85
110.175,-150.809,-1181.39
110.186,-151.645,-1179.57
110.279,-152.79,-1179.1
119.968,99.0966,-1326.1
123.568,108.121,-1463.16
123.264,100.703,-1456.79
123.454,100.011,-1455.64
123.695,97.5078,-1457.48
123.127,93.6049,-1444.35
123.369,90.9049,-1445.82
123.246,89.5939,-1440.5
123.287,88.8994,-1443.06
123.229,86.993,-1437.16
123.116,85.8796,-1435.2
123.057,82.717,-1433.47
122.971,80.7348,-1428.82
122.906,77.9622,-1425
122.676,30.4215,-1412.27
108.291,29.3304,-1406.75
108.363,28.7538,-1407.3
108.401,28.1033,-1407.69
108.361,26.5557,-1405.87
108.502,25.8227,-1406.36
108.635,25.0858,-1404.05
108.681,24.1023,-1401.99
108.803,23.1806,-1402.21
108.878,22.4237,-1400.57
108.881,21.8292,-1399.87
108.865,21.1487,-1399.01
108.811,20.442,-1397.38
108.804,19.7485,-1397.31
108.794,18.9594,-1396.98
108.802,18.1489,-1395.94
108.911,17.2777,-1393.67
108.993,16.4752,-1392.54
109.127,15.6494,-1392.03
109.129,14.8412,-1390.8
109.11,14.1649,-1389.41
109.203,13.4625,-1388.66
109.2,12.8024,-1387.74
109.231,12.0932,-1387.29
109.222,11.299,-1386.07
109.252,10.4548,-1384.98
109.24,9.68416,-1383.77
109.321,8.87887,-1383.61
109.345,8.06326,-1382.46
109.34,7.32611,-1381.5
109.299,6.58937,-1379.48
105.396,-92.6787,-1309.04
109.069,-89.9796,-1258.6
109.066,-90.7284,-1257.88
109.08,-91.4936,-1256.77
109.105,-92.2724,-1256.53
109.12,-92.9655,-1255.54
109.135,-93.5234,-1254.52
109.139,-94.157,-1253.7
109.118,-94.6008,-1252.39
109.161,-95.3549,-1252.21
109.184,-96.0896,-1251.85
109.19,-96.9021,-1250.69
108.798,-105.555,-1242.8
109.027,-106.062,-1237.94
109.085,-106.739,-1237.64
109.133,-107.36,-1237.15
109.131,-107.858,-1235.7
109.09,-108.501,-1234.73
109.098,-109.211,-1234.38
109.096,-109.82,-1232.78
109.116,-110.587,-1232.38
109.163,-111.298,-1231.95
109.119,-111.995,-1230.78
109.152,-112.684,-1230.1
109.167,-113.326,-1229.51
109.161,-113.886,-1228.77
109.1,-114.415,-1227.04
109.174,-115.167,-1227.62
109.114,-115.749,-1225.73
109.143,-116.474,-1224.93
109.135,-117.137,-1223.83
109.111,-117.863,-1223.08
109.092,-118.658,-1222.44
109.023,-119.36,-1222.16
109.05,-119.885,-1221.05
109.055,-120.373,-1219.81
109.13,-121.042,-1220.44
108.997,-121.421,-1218.16
109.03,-122.114,-1217.52
109.103,-122.917,-1217.38
109.121,-123.594,-1216.25
109.147,-124.34,-1215.36
109.172,-125.037,-1214.45
109.173,-125.727,-1213.96
109.206,-126.34,-1213.35
109.208,-126.912,-1212.4
109.196,-127.407,-1211.07
109.219,-128.111,-1211.05
109.187,-128.7,-1209.42
109.254,-129.421,-1209.33
109.225,-130.175,-1208.61
109.216,-130.824,-1206.98
109.261,-131.575,-1206.97
109.251,-132.168,-1205.34
109.235,-132.706,-1204.17
109.259,-133.328,-1203.35
109.27,-133.926,-1203.81
109.225,-134.292,-1200.95
109.268,-135.118,-1201.3
109.285,-135.845,-1200.57
109.3,-136.577,-1200.38
109.27,-137.142,-1198.17
109.311,-137.814,-1197.72
109.29,-138.459,-1196.56
109.288,-139.057,-1195.37
109.314,-140.305,-1195.03
109.359,-140.963,-1194.08
109.403,-141.576,-1193.37
109.34,-142.203,-1191.87
109.388,-142.873,-1191.15
109.355,-143.612,-1189.94
109.399,-144.356,-1189.87
109.352,-144.919,-1188.17
109.434,-145.622,-1188.4
109.42,-146.24,-1186.97
109.459,-146.823,-1187.48
109.444,-147.272,-1185.96
109.433,-147.962,-1185.43
109.414,-148.657,-1183.7
109.413,-149.481,-1183.25
109.447,-150.29,-1182.37
109.479,-151.052,-1180.81
109.526,-151.97,-1179.72
109.656,-153.171,-1179.88
119.333,100.369,-1328.44
122.8,109.143,-1468.29
122.513,107.508,-1460.39
122.394,103.38,-1458.86
122.569,101.75,-1458.26
122.597,99.6868,-1453.42
122.548,98.4586,-1452.38
122.56,97.6468,-1452.9
122.215,95.4363,-1446.67
122.252,91.2935,-1443.52
122.519,90.5996,-1445.58
122.274,88.4141,-1439.64
122.359,87.8707,-1440.39
122.211,86.5431,-1435.57
122.389,84.8038,-1438.93
122.1,83.4895,-1432.43
122.332,82.7067,-1434.15
122.202,81.3991,-1430.65
122.274,80.4614,-1431.87
122.256,79.5161,-1430.59
122.239,77.8477,-1428.21
121.745,31.1867,-1414.14
107.496,30.0664,-1406.7
107.62,29.377,-1408.77
107.644,28.8246,-1408.08
107.595,28.0372,-1408.09
107.778,27.315,-1407.82
107.689,26.4411,-1404.73
107.857,25.901,-1406.2
107.82,25.097,-1403.4
107.853,24.1467,-1402.21
107.928,23.2424,-1400.22
108.167,22.4563,-1400.66
108.188,21.7657,-1398.5
108.226,21.0211,-1397.88
108.207,20.3207,-1396.81
108.296,19.7292,-1397.43
108.244,18.9818,-1396.64
108.232,18.2486,-1395.06
108.284,17.2955,-1394.84
108.231,16.4501,-1391.92
108.335,15.6388,-1391.54
108.354,14.876,-1390.87
108.391,14.1059,-1390.22
108.368,13.4298,-1388.83
108.418,12.8035,-1388.41
108.451,12.0161,-1387.54
108.456,11.2802,-1386.57
108.437,10.4563,-1385.13
108.51,9.64342,-1385
108.486,8.85635,-1382.91
108.518,8.07549,-1382
108.544,7.30406,-1381.55
104.61,-92.7858,-1309.29
108.351,-90.1274,-1258.53
108.41,-90.91,-1258.29
108.38,-91.5719,-1256.25
108.398,-92.2941,-1255.76
108.387,-92.9782,-1254.5
108.432,-93.6003,-1254.24
108.487,-94.2086,-1253.28
108.51,-94.7666,-1252.5
108.529,-95.4689,-1252.27
108.484,-96.1715,-1251.26
108.47,-96.9582,-1250.04
108.137,-105.726,-1243.35
108.341,-106.237,-1238.65
108.322,-106.896,-1236.96
108.387,-107.491,-1236.39
108.397,-108.101,-1236.07
108.422,-108.64,-1234.69
108.45,-109.365,-1234.3
108.436,-109.973,-1233.04
108.457,-110.784,-1232.15
108.443,-111.481,-1231.44
108.405,-112.166,-1230.25
108.461,-112.857,-1229.69
108.414,-113.467,-1228.86
108.482,-114.045,-1228.35
108.478,-114.599,-1227.54
108.444,-115.245,-1226.33
108.459,-116.032,-1226.08
108.469,-116.762,-1224.96
108.432,-117.389,-1223.62
108.447,-118.167,-1222.88
108.431,-118.904,-1221.95
108.365,-119.447,-1221.76
108.458,-120.063,-1221.15
108.438,-120.552,-1219.55
108.491,-121.144,-1219.07
108.487,-121.718,-1218.61
108.431,-122.386,-1217.52
108.45,-123.06,-1216.28
108.569,-123.944,-1216.36
108.553,-124.559,-1215.03
108.524,-125.283,-1214.47
108.505,-125.919,-1212.8
108.533,-126.515,-1212.31
108.587,-127.108,-1211.63
108.596,-127.694,-1211.31
108.599,-128.26,-1210.1
108.672,-129.041,-1209.77
108.606,-129.688,-1208.32
108.571,-130.4,-1206.92
108.579,-131.033,-1206.15
108.608,-131.785,-1205.69
108.632,-132.373,-1204.62
108.66,-133.011,-1203.69
108.71,-133.69,-1203.88
108.679,-134.052,-1202.41
108.699,-134.797,-1201.84
108.672,-135.313,-1200.47
108.651,-136.13,-1199.95
108.673,-136.871,-1199.37
108.669,-137.583,-1198.34
108.644,-138.155,-1197.02
108.693,-138.874,-1196.58
108.675,-139.417,-1195.33
108.715,-140.068,-1195.24
108.7,-140.608,-1194.01
108.743,-141.31,-1193.52
108.714,-141.886,-1192.47
108.753,-142.66,-1192.16
108.758,-143.342,-1191.14
108.721,-143.843,-1189.54
108.715,-144.615,-1188.6
108.743,-145.328,-1188.33
108.709,-145.856,-1186.65
108.787,-146.433,-1186.85
108.783,-146.949,-1185.41
108.757,-147.495,-1184.86
108.797,-148.385,-1184.18
108.771,-149.04,-1183.32
108.764,-149.656,-1182.2
108.833,-150.787,-1182.07
108.89,-151.627,-1182.21
108.822,-152.206,-1178.42
108.941,-153.304,-1178.19
118.64,101.778,-1328.55
121.87,111.688,-1470.91
121.799,110.494,-1467.88
121.769,107.674,-1465.64
121.631,104.442,-1460.15
121.795,103.254,-1458.26
121.746,102.267,-1457.37
121.529,100.879,-1451.66
121.579,100.108,-1453.7
121.465,99.0466,-1449.97
121.613,98.1424,-1450.81
121.524,97.3008,-1449.48
121.726,96.617,-1453.51
121.585,95.4628,-1447.59
121.464,94.0532,-1444.18
121.55,93.1011,-1445.26
121.57,92.163,-1446.49
121.439,91.0122,-1442.9
121.288,87.2984,-1439.33
121.554,86.5552,-1440.81
121.252,84.1192,-1432.47
121.391,83.4,-1434.6
121.241,82.1534,-1432.83
121.235,81.2495,-1431.8
121.263,80.3581,-1430.71
121.165,79.1843,-1426.62
121.412,78.5213,-1430.06
121.222,77.5446,-1427
121.038,31.169,-1414.67
106.792,30.1407,-1410.5
106.881,29.3666,-1409.96
106.901,28.7468,-1408.73
106.985,28.0523,-1408.92
106.982,27.3107,-1407.68
107.02,26.5792,-1404.14
107.102,24.9826,-1404.24
107.159,24.2186,-1402
107.18,23.2768,-1401.58
107.192,22.4753,-1400.19
107.316,21.7347,-1400.04
107.356,21.0522,-1398.45
107.453,20.3002,-1397.71
107.547,19.6355,-1396.83
107.547,18.9326,-1395.26
107.618,18.1418,-1395.47
107.528,17.2616,-1393.1
107.524,16.4675,-1393.42
107.519,15.5766,-1391.79
107.536,14.7848,-1391.02
107.579,14.1162,-1390.34
107.585,13.4488,-1389.67
107.523,12.7554,-1387.16
107.655,12.0272,-1387.78
107.67,11.2629,-1387.31
107.706,10.4909,-1386.98
107.719,9.6547,-1384.98
107.708,8.84092,-1383.63
107.752,8.04074,-1382.64
107.752,7.28721,-1381.73
103.866,-92.9817,-1309.42
107.705,-90.3408,-1259.69
107.702,-90.9825,-1257.55
107.719,-91.7229,-1256.62
107.753,-92.4706,-1255.68
107.705,-93.1227,-1254.52
107.737,-93.7642,-1253.94
107.711,-94.3423,-1252.89
107.788,-94.9542,-1252.87
107.762,-95.564,-1251.51
107.764,-96.2921,-1250.89
107.724,-97.1244,-1250.01
107.356,-106.765,-1242.65
107.754,-107.155,-1237.66
107.787,-107.704,-1236.92
107.781,-108.22,-1235.69
107.773,-108.839,-1234.7
107.757,-109.547,-1233.7
107.759,-110.332,-1233.45
107.784,-110.959,-1232.4
107.764,-111.678,-1230.85
107.797,-112.396,-1230.45
107.804,-113.086,-1229.67
107.81,-113.707,-1228.89
107.794,-114.192,-1227.17
107.837,-114.84,-1226.83
107.829,-115.524,-1226.24
107.886,-116.241,-1226.02
107.894,-116.976,-1224.69
107.858,-117.729,-1223.36
107.799,-118.391,-1222.67
107.786,-119.06,-1221.9
107.847,-119.651,-1220.72
107.855,-120.28,-1220.44
107.794,-120.732,-1219.22
107.787,-121.201,-1217.88
107.812,-121.818,-1217.52
107.873,-122.629,-1216.88
107.843,-123.34,-1215.62
107.794,-124.018,-1214.46
107.873,-124.931,-1214.85
107.907,-125.55,-1213.88
107.904,-126.227,-1212.62
107.892,-126.858,-1211.51
107.952,-127.56,-1212.13
107.921,-127.955,-1210.2
107.983,-128.714,-1210.51
107.952,-129.328,-1209
107.96,-129.95,-1207.81
107.927,-131.397,-1206.12
108.001,-132.095,-1205.28
107.972,-132.717,-1203.62
107.985,-133.322,-1203.34
108.006,-133.826,-1202.19
107.991,-134.487,-1202.03
107.986,-135.866,-1201.11
108.093,-136.549,-1199.92
108.029,-137.145,-1198.66
108.048,-137.886,-1198.05
108.021,-138.476,-1196.35
108.079,-139.293,-1196.43
108.124,-139.95,-1196.05
108.099,-140.453,-1194.88
108.132,-141.066,-1194.84
108.099,-141.55,-1192.36
108.088,-142.289,-1192.39
108.087,-142.993,-1191.14
108.12,-143.683,-1190.74
108.117,-144.412,-1189.61
108.072,-144.997,-1188.19
108.094,-145.63,-1187.48
108.118,-146.274,-1186.74
108.095,-146.785,-1185.73
108.113,-147.267,-1185.49
108.036,-147.798,-1183.14
108.215,-148.781,-1184.92
108.104,-149.318,-1182.41
108.149,-150.203,-1182.51
108.103,-150.824,-1180.41
108.167,-151.825,-1180.23
108.12,-152.385,-1177.46
117.755,100.966,-1329.63
120.706,107.309,-1462.07
120.821,106.186,-1461.66
120.98,105.301,-1464.16
120.596,103.756,-1456.83
120.635,102.81,-1455
120.686,100.798,-1454.42
120.564,99.6172,-1452.31
120.963,99.1457,-1457.7
120.662,96.1765,-1451.44
120.699,93.997,-1446.98
120.365,90.6887,-1441.96
120.61,88.0607,-1441.78
120.489,87.1532,-1438.35
120.477,85.9854,-1436.8
120.495,84.1847,-1436.08
120.446,81.8171,-1432.31
120.677,81.0431,-1435.35
120.562,79.9368,-1431
120.425,78.8384,-1427.85
120.542,78.2837,-1431.84
120.019,30.4042,-1414.41
105.971,29.3557,-1407.65
106.194,28.8289,-1411.17
106.043,28.1188,-1407.08
106.244,27.3228,-1408.05
106.274,26.6319,-1406.25
106.36,25.7733,-1405.73
106.33,24.8719,-1403.1
106.272,24.0867,-1401.69
106.297,23.2845,-1402.12
106.381,22.5084,-1400.75
106.495,21.804,-1400.83
106.534,21.0951,-1399.21
106.579,20.3733,-1398.2
106.587,19.6575,-1395.18
106.692,18.8891,-1395.43
106.741,18.0431,-1394.91
106.729,17.2235,-1394.7
106.726,16.3564,-1392.95
106.756,15.5602,-1392.14
106.737,14.7558,-1391.51
106.724,14.033,-1390.99
106.758,13.4494,-1389.92
106.763,12.7999,-1389.42
106.792,12.0079,-1388.64
106.912,11.2384,-1386.84
106.866,10.4185,-1385.12
106.924,9.62809,-1384.41
106.955,8.84636,-1383.72
106.957,8.0732,-1382.28
103.057,-94.201,-1309.97
106.967,-91.1759,-1257.43
106.94,-91.8749,-1256.29
106.983,-92.6152,-1255.77
106.947,-93.2404,-1254.34
106.946,-93.9194,-1253.39
107.005,-94.6047,-1253.46
106.994,-95.1579,-1252.35
106.986,-95.8145,-1251.57
107.02,-96.541,-1251.22
107.049,-97.3455,-1250.17
107.069,-98.1782,-1249.37
106.676,-106.86,-1241.3
106.885,-107.177,-1235.9
107.043,-107.866,-1236.5
107.012,-108.393,-1235.01
107.029,-109.043,-1234.4
107.046,-109.756,-1233.36
107.125,-110.556,-1233.26
107.118,-111.179,-1231.74
107.157,-111.9,-1230.56
107.245,-112.633,-1230.44
107.272,-113.273,-1228.91
107.303,-113.943,-1228.56
107.333,-114.482,-1227.32
107.35,-115.05,-1226.91
107.381,-115.717,-1226.11
107.425,-116.575,-1225.71
107.416,-117.389,-1224.04
107.401,-118.17,-1224.1
107.238,-118.788,-1224.23
107.259,-119.41,-1222.32
107.351,-120.019,-1220.89
107.248,-120.997,-1218.86
107.285,-121.592,-1218.08
107.217,-122.215,-1216.51
107.235,-123.056,-1216.52
107.142,-124.413,-1214.38
107.277,-125.186,-1214.23
107.303,-125.974,-1213.9
107.276,-126.474,-1211.99
107.238,-127.168,-1211.49
107.269,-127.818,-1211.21
107.302,-128.361,-1210.41
107.265,-128.95,-1209.27
107.291,-129.645,-1208.54
107.267,-130.32,-1207.32
107.25,-130.941,-1206.06
107.267,-131.635,-1204.95
107.309,-132.582,-1205.37
107.256,-133.069,-1203.54
107.282,-133.616,-1202.69
107.294,-134.219,-1201.63
107.369,-134.949,-1202.09
107.367,-135.487,-1201.43
107.326,-136.126,-1199.84
107.375,-136.877,-1199.59
107.39,-137.539,-1198.22
107.353,-138.14,-1197.04
107.336,-138.75,-1195.48
107.382,-139.564,-1195.24
107.395,-140.209,-1194.93
107.354,-140.752,-1193.67
107.4,-141.302,-1193.36
107.392,-141.899,-1192.35
107.381,-142.568,-1191.32
107.456,-143.422,-1191.56
107.455,-144.034,-1190.12
107.446,-144.669,-1189.11
107.494,-145.386,-1188.8
107.469,-146.039,-1187.06
107.446,-146.589,-1186.18
107.479,-147.151,-1185.87
107.506,-147.745,-1185.78
107.527,-148.462,-1184.68
107.474,-148.999,-1183.56
107.496,-149.89,-1183.08
107.516,-150.498,-1181.99
107.479,-151.191,-1180.46
107.56,-153.068,-1179.26
107.622,-154.204,-1178.57
117.217,104.142,-1327.62
119.857,114.409,-1473.79
119.894,112.046,-1468.29
120.087,110.942,-1469.67
120.01,109.863,-1464.92
119.86,108.849,-1464.28
119.984,107.337,-1467.36
119.905,105.991,-1462.62
119.638,104.533,-1456.1
120.03,103.957,-1462.12
119.732,102.467,-1452.98
119.962,101.636,-1458.39
119.99,99.7903,-1457.53
119.645,98.5316,-1451.08
119.798,97.5556,-1452.03
119.821,96.6874,-1449.3
119.894,95.9104,-1452.56
119.77,94.5806,-1447.14
119.678,93.6345,-1447.01
119.909,92.8243,-1448.94
119.835,91.3397,-1443.97
119.726,90.5641,-1443.68
119.748,89.4263,-1442.29
119.937,89.014,-1445.98
119.483,84.7693,-1436.22
119.559,83.5002,-1433.99
119.591,82.9072,-1435.5
119.555,81.6401,-1431.92
119.418,80.4315,-1430.61
119.62,79.7741,-1431.47
119.33,77.7994,-1426.15
119.288,30.4317,-1416.96
105.277,29.3601,-1409.48
105.208,28.7354,-1407.45
105.224,28.1777,-1407.85
105.285,27.3733,-1406.04
105.389,26.5709,-1405.28
105.464,25.7467,-1404.32
105.477,24.8956,-1403.36
105.546,24.1202,-1402.26
105.576,23.2293,-1401.08
105.614,22.5295,-1400.53
105.665,21.8064,-1399.8
105.734,21.112,-1399.17
105.744,20.3704,-1397.44
105.818,19.6736,-1397.81
105.837,18.8451,-1396.28
105.904,18.0353,-1395.61
105.93,17.1921,-1393.9
105.893,16.3248,-1392.67
106.002,15.5074,-1393.17
105.998,14.694,-1391.79
105.96,14.0055,-1390.92
106.033,13.4135,-1390.95
106.04,12.8038,-1389.65
105.968,12.0071,-1387.17
106.014,11.2154,-1386.9
106.039,10.4264,-1385.53
106.144,9.53414,-1385.12
106.136,8.81307,-1383.09
106.2,8.01717,-1382.64
106.238,7.27179,-1382.47
104.594,-45.8885,-1349.18
101.288,-92.8233,-1288.38
106.206,-91.3998,-1257.19
106.285,-92.1508,-1257.47
106.265,-92.7859,-1255.6
106.258,-93.5385,-1254.7
106.234,-94.1217,-1253.2
106.273,-94.7437,-1253.38
106.287,-95.3711,-1252.61
106.247,-95.9608,-1250.9
106.297,-96.7437,-1250.98
106.284,-97.5057,-1249.58
106.255,-98.3534,-1249.43
105.952,-107.196,-1242.7
106.245,-107.595,-1237.73
106.326,-108.161,-1235.94
106.358,-108.747,-1235.17
106.443,-109.364,-1234.47
106.486,-109.99,-1233.26
106.546,-110.782,-1232.75
106.627,-111.456,-1231.96
106.69,-112.182,-1231.28
106.716,-112.831,-1229.86
106.726,-113.449,-1228.83
106.774,-114.135,-1228.31
106.777,-114.733,-1227.35
106.746,-115.292,-1226.36
106.722,-115.954,-1225.5
106.654,-116.772,-1224.3
106.597,-117.799,-1223.46
106.653,-118.353,-1223.43
106.645,-118.987,-1223.23
106.553,-119.797,-1222.54
106.627,-120.403,-1220.99
106.625,-120.831,-1218.85
106.619,-121.41,-1217.92
106.599,-122.078,-1217.94
106.594,-122.723,-1217.09
106.543,-123.429,-1216
106.559,-124.1,-1215.15
106.555,-124.749,-1213.96
106.585,-125.591,-1214.07
106.579,-126.309,-1212.88
106.605,-126.911,-1212.05
106.614,-127.597,-1211.7
106.631,-128.152,-1210.31
106.67,-128.748,-1210.27
106.644,-129.285,-1208.6
106.618,-130.846,-1207.51
106.654,-131.551,-1207.23
106.644,-132.087,-1205.83
106.644,-132.865,-1204.74
106.711,-133.607,-1204.69
106.656,-134.086,-1202.7
106.679,-134.614,-1201.77
106.665,-135.189,-1201.03
106.661,-135.704,-1199.61
106.658,-136.474,-1198.99
106.695,-137.302,-1199.27
106.729,-137.871,-1197.89
106.713,-138.662,-1196.68
106.762,-139.476,-1196.67
106.774,-140.081,-1196.15
106.727,-140.511,-1194.04
106.76,-141.227,-1194.12
106.752,-141.737,-1193.18
106.75,-142.221,-1191.74
106.764,-142.997,-1191.21
106.753,-143.624,-1190.2
106.775,-144.311,-1189.15
106.803,-145.055,-1188.84
106.767,-145.726,-1187.43
106.802,-146.363,-1186.84
106.812,-146.994,-1186.6
106.821,-147.54,-1185.44
106.826,-148.1,-1184.49
106.844,-148.653,-1183.98
106.852,-149.438,-1183.35
106.771,-150.065,-1181.56
106.788,-150.777,-1180.92
106.857,-151.548,-1180.07
106.9,-152.451,-1178.87
107.004,-153.545,-1178.54
116.517,104.851,-1331.39
118.959,110.019,-1473.53
119.209,108.871,-1469.33
118.892,105.531,-1459.62
119.041,104.392,-1459.48
118.913,103.213,-1456.48
118.833,100.229,-1455.39
118.866,99.4415,-1455.6
118.907,98.4925,-1453.48
118.886,97.4752,-1450.87
118.903,96.4345,-1450.98
118.855,95.4755,-1449.65
118.84,93.3122,-1447.32
118.787,92.3636,-1446.36
118.879,91.6152,-1446.5
118.895,90.4513,-1445.96
118.709,89.0367,-1439.99
118.938,87.6771,-1444.42
118.75,86.5322,-1437.12
118.827,85.5753,-1439.61
118.6,84.3526,-1435.49
118.587,83.3576,-1434.16
118.687,82.3022,-1434.57
118.537,81.2533,-1430.76
118.619,80.3484,-1431.36
118.532,79.1341,-1428.55
118.723,78.5114,-1430.05
118.542,77.3562,-1425.12
118.299,30.3745,-1416.64
104.49,29.245,-1408.93
104.578,28.8461,-1410.11
104.48,28.2287,-1408.04
104.578,27.4588,-1407.54
104.672,26.6062,-1406.99
104.681,25.7273,-1404.3
104.739,24.8971,-1403.8
104.818,24.1131,-1403.41
104.843,23.2697,-1402.79
104.91,22.5277,-1401.34
104.894,21.8485,-1400.28
104.927,21.1516,-1400.02
104.981,20.4481,-1398.9
104.986,19.6592,-1397.37
105.042,18.8877,-1396.81
105.029,18.0128,-1395.06
105.108,17.2156,-1394.98
105.159,16.3594,-1393.87
105.215,15.4759,-1393.38
105.262,14.6772,-1392.03
105.286,13.9946,-1390.12
105.325,13.3135,-1390.08
105.316,12.6987,-1387.92
105.278,11.9616,-1387.54
105.191,11.2283,-1386.92
105.177,10.4491,-1386.75
105.151,9.58931,-1385.43
105.304,8.829,-1384.75
105.307,8.03797,-1383.52
105.394,7.22663,-1381.79
103.701,-47.332,-1347.09
100.412,-92.9706,-1287
105.493,-91.6604,-1257.66
105.501,-92.3277,-1255.97
105.479,-93.1056,-1255.35
105.483,-93.8464,-1254.07
105.461,-94.5069,-1254.05
105.36,-95.6277,-1252.44
105.343,-96.1075,-1250.84
105.298,-96.8725,-1250.68
105.368,-97.5394,-1250.49
104.647,-113.679,-1238.1
105.53,-113.294,-1225.67
105.603,-114.04,-1225.43
105.572,-114.769,-1225.55
105.627,-115.521,-1226.46
105.6,-116.201,-1226.43
105.508,-117.013,-1224.97
105.359,-119.384,-1222.33
105.81,-119.986,-1221.03
105.779,-121.257,-1219.06
105.865,-121.856,-1217.93
105.806,-122.44,-1217.36
105.858,-123.068,-1216.5
105.939,-123.917,-1216.78
105.852,-124.393,-1214.41
105.876,-125.13,-1213.61
105.853,-125.736,-1212.32
105.877,-126.533,-1211.75
105.92,-127.255,-1211.43
105.911,-127.883,-1210.76
105.9,-128.383,-1208.92
105.92,-129.066,-1209.39
105.999,-129.815,-1209.21
105.946,-130.343,-1207.51
105.909,-131.067,-1206.16
105.954,-131.877,-1206.14
105.953,-132.602,-1205.66
105.901,-133.158,-1203.78
105.948,-133.838,-1203.04
105.891,-134.343,-1201.39
106.014,-135.241,-1202.76
105.945,-135.626,-1201.15
105.946,-136.211,-1200.1
105.971,-136.869,-1199.02
105.915,-137.441,-1197.44
105.941,-138.259,-1196.88
105.934,-138.919,-1195.94
106.044,-139.649,-1195.84
106.017,-140.368,-1194.5
106.075,-141.014,-1194.71
106.11,-141.586,-1193.77
106.043,-142.047,-1191.95
106.049,-142.636,-1191.43
106.046,-143.324,-1190.04
106.031,-144.795,-1189.03
106.084,-145.413,-1188.09
106.151,-146.19,-1188.03
106.177,-146.684,-1186.47
106.145,-147.34,-1185.16
106.16,-148.006,-1184.73
106.249,-148.712,-1185.4
106.17,-149.102,-1183.23
106.12,-149.688,-1181.7
106.153,-150.473,-1181.23
106.167,-151.096,-1180.43
106.139,-152.9,-1178.85
106.301,-153.63,-1177.12
106.424,-154.675,-1177.06
115.82,104.299,-1328.09
118.173,114.704,-1473.74
118.118,113.662,-1470.51
117.923,109.291,-1468.64
118.133,108.363,-1465.73
118.065,107.198,-1462.63
118.123,106.417,-1463.44
118.085,105.315,-1460.75
118.062,104.381,-1461.19
117.997,103.216,-1459.58
118.091,102.235,-1458.91
118.136,101.143,-1457.92
118.11,100.071,-1456.12
118.138,99.1098,-1453.35
117.842,97.8583,-1449.78
118.076,96.2974,-1451.19
117.836,95.0707,-1447.02
117.845,93.1266,-1447.64
118.008,92.0648,-1445.35
117.907,90.9824,-1444.63
117.701,88.0854,-1441.01
117.812,87.2885,-1439.54
117.986,86.2969,-1440.29
117.779,85.2293,-1436.52
117.832,84.3337,-1437.17
117.75,82.9977,-1433.65
117.791,82.1322,-1434.52
117.712,81.1429,-1431.36
117.783,79.1906,-1431.92
117.596,78.0877,-1425.51
117.391,29.7123,-1414.52
103.895,28.8452,-1410.16
103.869,28.219,-1409.22
103.922,27.4785,-1407.96
103.915,26.5842,-1406.79
103.922,25.7128,-1405.58
104.017,24.9566,-1405.62
103.981,24.0663,-1403.9
104.062,23.2247,-1402.08
104.051,22.4486,-1400.19
104.186,21.8911,-1401.44
104.202,21.1057,-1400.29
104.163,20.4293,-1399.14
104.152,19.6478,-1396.93
104.207,18.8661,-1396.28
104.29,18.0055,-1396.56
104.363,17.1999,-1395.63
104.361,16.3586,-1393.84
104.364,15.4883,-1391.77
104.392,14.6499,-1391.04
104.46,13.9703,-1390.9
104.45,13.3194,-1389.73
104.434,12.6361,-1387.28
104.395,11.8596,-1387.64
104.403,11.1593,-1386.72
104.471,10.4027,-1387.49
104.448,9.6624,-1385.25
104.429,8.8712,-1384.68
104.548,7.99815,-1383.36
103.807,-13.0911,-1367.42
103.853,-46.3122,-1337.78
101.529,-47.2227,-1319.25
99.6263,-94.0466,-1283.23
104.817,-92.7285,-1256.47
104.709,-94.0246,-1254.2
104.478,-96.4327,-1252.96
104.616,-96.8936,-1251.38
104.612,-97.6612,-1250.61
103.841,-116.937,-1236.91
104.557,-116.583,-1226.6
104.593,-117.299,-1223.93
104.741,-119.851,-1223.03
105.098,-120.353,-1219.88
105.132,-121.047,-1219.51
105.118,-121.577,-1218.2
105.182,-122.333,-1218.28
105.128,-122.78,-1216
105.13,-123.463,-1215.92
105.162,-124.201,-1215.11
105.176,-124.961,-1214.87
105.225,-125.603,-1213.93
105.163,-126.207,-1212.12
105.256,-127.032,-1212.22
105.263,-127.719,-1211.75
105.23,-128.329,-1210.32
105.205,-128.909,-1209.55
105.265,-129.479,-1208.97
105.193,-130.067,-1207.44
105.152,-130.932,-1207.47
105.118,-131.672,-1206.73
104.999,-132.89,-1203.25
104.882,-137.371,-1199.49
105.091,-138.128,-1198.2
105.178,-138.764,-1197.55
105.227,-139.338,-1195.49
105.292,-140.035,-1194.53
105.283,-140.682,-1193.51
105.334,-141.458,-1194.13
105.352,-141.809,-1192.34
105.338,-142.318,-1191.23
105.393,-143.183,-1191.16
105.396,-143.744,-1190.49
105.388,-144.473,-1189.2
105.443,-145.172,-1188.59
105.421,-145.75,-1187.28
105.426,-146.471,-1186.49
105.475,-147.195,-1186.15
105.461,-147.771,-1184.99
105.533,-148.412,-1185.25
105.453,-148.851,-1183.71
105.492,-149.472,-1182.88
105.483,-150.208,-1182
105.498,-150.813,-1181.26
105.557,-151.672,-1180.59
105.529,-152.457,-1179.79
105.536,-153.206,-1178.44
105.585,-153.997,-1176.91
114.837,102.305,-1327.5
117.285,111.352,-1472.78
117.22,110.169,-1469.55
117.106,108.631,-1462.98
117.061,107.715,-1462.75
117.017,105.942,-1461.14
117.112,104.09,-1459.95
116.954,101.648,-1455.5
117.114,100.709,-1457.15
117.125,99.7365,-1455.76
117.219,98.9374,-1455.99
117.086,97.6718,-1452.92
117.093,96.9455,-1453.23
117.047,96.0368,-1451.84
117.106,95.006,-1451.44
116.966,92.7638,-1446.95
117.014,91.5819,-1443.38
116.919,90.6655,-1444.17
116.868,89.5528,-1441.29
116.977,88.7453,-1442.55
116.86,87.6434,-1437.23
116.805,86.0193,-1437.99
116.85,84.913,-1436.14
116.821,83.9721,-1433.36
116.795,81.5318,-1430.64
116.763,80.785,-1432.78
116.739,79.7296,-1428.74
116.437,30.2595,-1415.13
102.963,28.8648,-1409.91
103.202,28.1948,-1408.91
103.135,27.421,-1408.47
103.195,26.6053,-1407.44
103.177,25.7724,-1407.45
103.193,24.9186,-1404.58
103.179,24.0117,-1403.54
103.235,23.2284,-1402.3
103.315,22.4612,-1402.38
103.266,21.7577,-1400.01
103.314,21.1155,-1399.72
103.34,20.3785,-1399.45
103.339,19.6509,-1398.59
103.351,18.8789,-1397.25
103.431,17.9786,-1396.35
103.5,17.1606,-1394.99
103.495,16.3374,-1392.75
103.631,15.5089,-1393.92
103.626,14.6816,-1392.12
103.695,13.9067,-1390.85
103.728,13.198,-1390.58
103.707,12.5463,-1389.42
103.685,11.9059,-1388.41
103.68,11.1243,-1386.61
103.862,10.3271,-1386.86
103.882,9.6391,-1385.61
103.751,8.86558,-1383.47
102.936,-13.2284,-1367.78
103.049,-46.3513,-1337.98
101.036,-46.6095,-1324.11
98.7008,-99.1727,-1279.54
103.981,-97.3646,-1249.12
103.239,-118.783,-1236.55
104.189,-120.179,-1221.59
104.451,-120.676,-1219.56
104.429,-121.333,-1219.14
104.443,-121.951,-1217.44
104.508,-122.685,-1217.85
104.509,-123.343,-1216.98
104.484,-123.825,-1215.68
104.515,-124.601,-1214.99
104.504,-125.33,-1214.33
104.536,-126.01,-1213.01
104.518,-126.726,-1212.45
104.456,-127.359,-1210.6
104.482,-128.034,-1210.16
104.319,-133.386,-1206.99
104.256,-140.328,-1198.72
104.528,-140.375,-1193.93
104.573,-141.059,-1193.18
104.684,-141.759,-1193.26
104.666,-142.193,-1191.78
104.678,-142.821,-1191.07
104.748,-143.533,-1190.7
104.676,-144.897,-1189.3
104.711,-145.477,-1187.6
104.736,-146.224,-1186.77
104.71,-146.849,-1185.42
104.78,-147.509,-1185.16
104.731,-148.146,-1184.11
104.753,-148.687,-1183.9
104.819,-149.286,-1183.4
104.752,-149.782,-1181.58
104.836,-150.632,-1181.95
104.833,-151.419,-1181.16
104.873,-152.093,-1179.92
104.747,-152.65,-1177.7
104.844,-153.584,-1176.9
104.883,-155.397,-1174.73
114.284,102.213,-1326.71
116.202,110.836,-1467.88
116.236,108.664,-1467.6
116.225,105.974,-1464.85
116.222,102.742,-1461.26
116.17,101.123,-1454.22
116.1,100.575,-1455.94
116.127,99.4434,-1454.02
116.002,98.1309,-1450.31
116.183,97.3866,-1450.67
116.191,95.8534,-1452.39
116.222,94.9674,-1449.24
116.084,93.6256,-1447.5
116.132,91.5302,-1446.54
115.913,88.456,-1441.84
115.938,87.2866,-1437.3
116.05,86.3965,-1438.48
116.142,84.8184,-1439.22
115.919,83.6447,-1434.27
116.044,81.7038,-1435.65
116.009,80.7389,-1431.87
115.542,30.2698,-1415.88
102.376,29.4508,-1409.8
102.374,28.7876,-1409.34
102.388,28.0813,-1408.61
102.382,27.2434,-1406.76
102.33,26.5767,-1407.22
102.304,25.703,-1405.63
102.314,24.8842,-1404.08
102.4,24.0484,-1403.45
102.435,23.2493,-1402.85
102.465,22.4647,-1402
102.501,21.668,-1400.94
102.457,20.9552,-1400.17
102.48,20.3663,-1400.39
102.43,19.69,-1398.17
102.499,18.923,-1397.39
102.575,17.9438,-1396.09
102.739,17.1593,-1395.66
102.745,16.2975,-1393.7
102.802,15.4931,-1392.66
102.829,14.6535,-1392
102.899,13.9048,-1391.04
102.892,13.1834,-1388.52
103.069,12.5682,-1389.59
103.164,11.9914,-1388.43
103.147,11.1358,-1387.1
103.128,10.1921,-1386.01
103.15,9.53775,-1385.1
103.078,8.78295,-1383.66
103.021,7.90397,-1383.55
102.19,-13.3674,-1367.37
99.8573,-101.065,-1294.67
102.572,-118.396,-1238.86
103.582,-118.055,-1223.21
103.615,-119.753,-1220.91
103.753,-120.36,-1219.01
103.771,-121.054,-1219.02
103.755,-122.48,-1218.12
103.74,-122.959,-1216.5
103.761,-123.512,-1215.49
103.786,-124.262,-1215.09
103.78,-124.925,-1213.78
103.79,-125.628,-1213.37
103.802,-126.434,-1212.71
103.484,-133.576,-1207.34
103.866,-140.264,-1198.11
103.964,-140.404,-1194.65
103.936,-141.523,-1192.75
103.907,-141.972,-1190.85
103.989,-142.752,-1191.85
104.013,-143.295,-1190.9
104.061,-143.931,-1190.37
103.974,-144.396,-1188.37
104.031,-145.231,-1187.83
104.04,-145.896,-1186.86
104.085,-146.534,-1186.72
104.096,-147.221,-1185.02
104.097,-148.063,-1185.15
104.092,-148.554,-1183.86
104.086,-149.132,-1182.81
104.116,-149.779,-1182.89
104.125,-151.083,-1181.55
104.134,-151.598,-1179.43
104.157,-152.57,-1179.11
104.185,-153.273,-1178.46
104.161,-153.895,-1175.76
104.245,-154.813,-1175.23
113.34,100.848,-1326.01
115.356,110.653,-1470.73
115.257,109.224,-1463.9
115.21,108.042,-1461.5
115.27,107.424,-1464.29
115.328,105.551,-1462.48
115.277,104.454,-1460.05
115.278,102.66,-1461.98
115.183,101.157,-1455.41
115.421,100.224,-1457.28
115.316,99.2143,-1457.41
115.235,96.3952,-1452.71
115.37,95.617,-1453.12
115.206,94.3276,-1447.19
115.152,92.1246,-1445.49
115.156,90.2196,-1444.82
115.062,89.0456,-1442.06
115.068,87.9324,-1441.31
115.123,87.2467,-1440.69
115.1,86.1209,-1436.37
115.08,85.0727,-1435.05
114.979,82.3285,-1435.72
114.98,81.1717,-1431.41
115.151,80.2868,-1432.98
114.903,78.967,-1427.04
114.384,29.5908,-1410.31
101.485,28.7352,-1409.16
101.488,27.9738,-1407.41
101.621,27.3519,-1408.99
101.645,26.5172,-1408.07
101.64,25.6874,-1406.19
101.625,24.857,-1405.07
101.626,24.0489,-1403.81
101.665,23.1566,-1402.31
101.681,22.338,-1402.38
101.638,21.5862,-1400.99
101.616,20.9593,-1400.04
101.665,20.3264,-1399.56
101.719,19.7132,-1397.78
101.817,18.9216,-1397.41
101.897,17.9544,-1396.01
101.931,17.1323,-1394.86
101.965,16.3,-1393.73
101.969,15.4271,-1392.4
102.028,14.6464,-1392.02
102.06,13.9519,-1390.9
102.072,13.2309,-1389.39
102.162,12.551,-1388.03
102.215,11.8561,-1386.98
102.273,11.0533,-1387.45
102.247,10.1207,-1385.83
102.266,9.45162,-1385.37
98.2772,-100.306,-1306.84
101.665,-118.576,-1236.93
102.702,-120.249,-1219.58
103.046,-120.962,-1219.83
103.074,-121.562,-1218.64
103.064,-122.179,-1217.73
103.028,-122.701,-1216.34
103.063,-123.315,-1215.42
103.114,-123.979,-1215.59
103.11,-124.666,-1214.47
103.069,-125.408,-1214.05
103.041,-126.198,-1212.68
102.794,-132.965,-1208.45
102.787,-141.621,-1199.06
103.409,-141.4,-1192.12
103.375,-141.928,-1191.95
103.347,-142.483,-1190.84
103.283,-142.991,-1189.99
103.339,-143.672,-1190.22
103.351,-144.381,-1189.86
103.371,-145.031,-1188.29
103.382,-145.812,-1188.7
103.352,-146.257,-1186.11
103.417,-147.068,-1186.13
103.398,-147.659,-1184.95
103.429,-148.307,-1183.91
103.384,-148.885,-1182.55
103.442,-149.533,-1182.8
103.428,-149.988,-1181.24
103.417,-151.424,-1180.12
103.479,-152.141,-1179.76
103.53,-152.778,-1178.36
103.474,-153.554,-1177.03
103.53,-154.514,-1176.71
103.544,-155.19,-1174.71
103.624,-156.29,-1172.76
112.719,101.456,-1324.7
114.346,109.171,-1466.99
114.367,106.408,-1463.26
114.4,105.386,-1463.4
114.224,100.036,-1456.89
114.194,96.7637,-1451.13
114.374,95.9742,-1449.03
114.432,94.9997,-1450.39
114.323,94.0535,-1448.4
114.102,90.7711,-1443.59
114.034,89.613,-1440.15
114.23,86.8598,-1440.17
114.285,85.9157,-1439.72
114.124,84.9338,-1437.5
114.159,84.036,-1435.73
114.119,80.0391,-1434.18
113.954,29.7058,-1418.61
100.764,28.6672,-1409.48
100.746,28.016,-1408.54
100.796,27.2429,-1407.53
100.814,26.5144,-1407.41
100.908,25.6568,-1407.97
100.917,24.8365,-1406.07
100.938,24.0288,-1404.9
100.936,23.0491,-1403.31
100.999,22.262,-1403.09
100.979,21.5609,-1400.95
101.105,20.932,-1400.57
101.012,20.313,-1397.94
101.119,19.7116,-1397.85
101.145,18.8586,-1397.9
101.184,17.8862,-1396.71
101.176,17.0482,-1395.3
101.19,16.2358,-1394.32
101.191,15.3471,-1392.8
101.216,14.5959,-1391.95
101.243,13.9148,-1391
101.305,13.2307,-1390.35
101.311,12.5454,-1388.77
101.329,11.7864,-1388.19
101.331,10.9332,-1387.02
101.365,10.052,-1386.77
101.427,9.30651,-1385.81
101.417,8.53296,-1385.11
100.644,-12.3974,-1369.69
98.3085,-101.192,-1295.58
100.976,-120.346,-1235.12
102.248,-120.85,-1220.77
102.415,-121.341,-1218.94
102.339,-121.87,-1217.81
102.36,-122.524,-1216.98
102.325,-123.171,-1215.79
102.359,-123.829,-1215.53
102.374,-124.452,-1214.31
102.411,-125.25,-1214.16
102.343,-126.06,-1213.25
101.809,-141.726,-1202.12
102.735,-141.329,-1192.06
102.677,-142.434,-1190.65
102.69,-143.127,-1192.06
102.658,-143.503,-1189.99
102.607,-144.017,-1189.03
102.667,-144.693,-1188.59
102.664,-145.285,-1187.46
102.705,-146.134,-1187.03
102.713,-146.694,-1186.09
102.694,-147.284,-1184.32
102.746,-148.079,-1184.47
102.729,-148.824,-1183.64
102.747,-149.324,-1182.39
102.712,-149.846,-1181.24
102.73,-151.151,-1180.5
102.77,-151.795,-1179.38
102.747,-152.565,-1178.36
102.739,-153.186,-1177.23
102.839,-154.003,-1177.31
102.868,-154.804,-1175.87
102.989,-155.792,-1174.52
111.867,100.269,-1324.34
113.371,107.665,-1465.16
113.449,106.02,-1465.63
113.506,104.871,-1462.6
113.532,102.845,-1461.62
113.764,102.109,-1462.91
113.553,100.709,-1456.7
113.519,99.7851,-1456.56
113.373,97.3391,-1451.78
113.512,96.0666,-1453.93
113.287,94.2602,-1444.85
113.381,93.7361,-1448.1
113.449,91.4842,-1445.68
113.413,90.5672,-1444.63
113.208,89.2988,-1439.5
113.364,88.4812,-1441.09
113.218,87.2037,-1438.83
113.411,86.6567,-1442.47
113.365,85.5841,-1437.9
113.185,81.594,-1434.47
113.311,80.7421,-1434.5
113.295,79.6114,-1433.14
112.883,30.3372,-1414.08
99.935,29.3596,-1409.85
100.028,28.6018,-1410.35
100.001,27.9928,-1408.7
99.9624,27.2132,-1407.77
99.9814,26.4797,-1407.18
100.069,25.6603,-1406.84
100.094,24.7815,-1404.82
100.187,23.9504,-1405.04
100.146,23.086,-1402.77
100.257,22.2539,-1402.4
100.352,21.4985,-1400.9
100.507,20.8509,-1399.33
100.52,20.3046,-1399.27
100.456,19.6081,-1397.47
100.459,18.7583,-1397.19
100.359,17.8061,-1396.05
100.396,17.0092,-1396.07
100.415,16.154,-1394.55
100.442,15.2996,-1393.44
100.502,14.5365,-1392.69
100.513,13.835,-1391.46
100.537,13.1349,-1390.9
100.546,12.4342,-1390.16
100.548,11.6769,-1389.27
100.572,10.8621,-1387.92
100.574,9.99668,-1386.33
100.639,9.19016,-1385.53
100.678,8.45239,-1384.57
99.9376,-12.7202,-1368.97
99.9101,-47.1042,-1338.33
95.9077,-98.6503,-1284.05
101.008,-96.8143,-1249.42
101.147,-97.4735,-1250.12
100.192,-122.454,-1232.55
101.729,-121.604,-1217.66
101.748,-122.258,-1217.58
101.689,-122.96,-1216.86
101.693,-123.564,-1215.99
101.728,-124.236,-1214.61
101.737,-125.017,-1214.16
101.052,-142.148,-1201.55
102.094,-141.742,-1191.81
102.048,-142.376,-1191.68
101.976,-142.895,-1190.19
102.04,-143.576,-1191.78
101.967,-143.938,-1189.36
101.987,-144.454,-1188.59
102.028,-145.07,-1188.54
102.074,-145.768,-1187.06
102.012,-146.366,-1185.67
102.089,-147.083,-1185.3
102.059,-147.683,-1183.73
102.006,-148.437,-1182.54
102.086,-149.782,-1182.13
102.103,-150.356,-1181.04
102.16,-151.082,-1181.33
102.148,-151.648,-1180.55
102.135,-152.257,-1178.78
102.178,-152.994,-1178.45
102.143,-153.479,-1176.12
102.18,-154.444,-1176.35
102.165,-155.21,-1174.08
111.085,101.098,-1326.04
112.715,111.194,-1472.14
112.568,108.611,-1467.64
112.706,107.346,-1464.88
112.875,106.896,-1467.91
112.664,105.752,-1464.87
112.566,102.571,-1459.33
112.524,100.285,-1455.79
112.586,98.2351,-1454.06
112.715,97.5555,-1456.75
112.479,96.1573,-1448.67
112.504,95.4347,-1451.22
112.645,94.5356,-1450.7
112.446,92.3145,-1446.11
112.632,91.6081,-1446.94
112.591,90.2646,-1444.99
112.459,89.32,-1443.4
112.504,88.3837,-1443.42
112.274,86.8646,-1438.07
112.466,86.3461,-1439.04
112.245,85.0499,-1435.03
112.395,84.1409,-1436.08
112.476,83.5083,-1436.58
112.34,80.5388,-1433.83
112.142,30.3376,-1419.13
99.2586,29.2874,-1410.84
99.256,28.6008,-1410.56
99.2569,27.8467,-1410.27
99.3164,27.2341,-1409.8
99.3048,26.3798,-1408.48
99.2683,25.5103,-1406.08
99.3155,24.6769,-1405.28
99.2924,23.8908,-1404.76
99.3789,23.1139,-1402.98
99.5038,22.2712,-1402.87
99.5983,21.499,-1402.41
99.579,20.8158,-1399.8
99.6681,20.1504,-1399.22
99.6662,19.4582,-1398.24
99.6304,18.5877,-1396.83
99.6039,17.7045,-1396.42
99.624,16.8995,-1395.46
99.6435,16.0638,-1394.56
99.6626,15.2231,-1393.91
99.73,14.4399,-1393.51
99.7071,13.7122,-1391.1
99.7391,13.0698,-1390.76
99.76,12.34,-1389.64
99.8061,11.6,-1388.98
99.8429,10.8311,-1388.32
99.8694,9.92187,-1386.93
99.9042,9.07147,-1386.09
99.1771,-13.0217,-1369.6
99.1966,-45.6347,-1338.93
97.5349,-45.8763,-1327.39
97.4344,-46.5556,-1326.3
97.3355,-47.3797,-1323.89
94.184,-125.992,-1261.9
101.108,-122.037,-1217.66
101.051,-122.552,-1216.39
101.014,-123.244,-1215.66
100.987,-124.637,-1214.16
101.055,-125.447,-1213.02
101.225,-126.139,-1212.57
101.301,-126.9,-1210.77
100.928,-142.474,-1200.93
101.435,-142.079,-1190.95
101.412,-142.763,-1190.92
101.426,-143.26,-1190.68
101.466,-143.836,-1190.89
101.391,-144.252,-1188.04
101.403,-144.897,-1188.34
101.36,-146.177,-1186.74
101.361,-146.686,-1184.99
101.448,-147.559,-1184.52
101.48,-148.272,-1184.25
101.475,-148.982,-1183.29
101.412,-149.539,-1181.49
101.479,-150.177,-1180.93
101.523,-150.725,-1180.5
101.526,-151.363,-1180.45
101.491,-151.89,-1178.39
101.547,-152.657,-1178.98
101.569,-153.388,-1177.49
101.589,-154.107,-1176.43
101.564,-154.76,-1175.13
101.615,-155.676,-1174.2
101.602,-156.748,-1172.03
110.302,93.5869,-1319.94
111.683,101.977,-1458.02
111.798,101.465,-1462.42
111.582,99.981,-1454.36
111.615,98.81,-1454.28
111.699,98.1667,-1453.58
111.711,96.843,-1452.46
111.781,96.2423,-1456.17
111.534,92.9513,-1447.01
111.571,92.0164,-1446.22
111.423,89.7589,-1441.91
111.566,87.8268,-1441.32
111.601,86.1417,-1442.08
111.526,85.0982,-1435.6
111.388,83.0268,-1434.51
111.53,81.9456,-1433.77
111.575,80.2811,-1434.08
111.088,30.2851,-1414.86
98.4484,29.1953,-1410.38
98.4548,28.5369,-1409.91
98.468,27.8336,-1408.52
98.5209,27.1052,-1407.7
98.5513,26.2879,-1407.05
98.5351,25.3926,-1406.94
98.556,24.6167,-1406.16
98.5462,23.8761,-1405.71
98.5431,23.0011,-1403.83
98.6603,22.2002,-1402.86
98.7003,21.4705,-1401.82
98.7411,20.76,-1400.94
98.7912,20.0679,-1399.95
98.7982,19.3192,-1399.01
98.8188,18.4812,-1397.83
98.8355,17.6115,-1396.38
98.8511,16.7839,-1395.96
98.8735,15.9621,-1394.48
98.8871,15.1559,-1393.19
98.9234,14.351,-1392.03
98.9993,13.6388,-1391.97
99.0216,12.94,-1390.59
99.0345,12.2417,-1389.31
99.0609,11.4809,-1388.92
99.0725,10.6608,-1388.15
99.0809,9.86437,-1386.98
99.1195,8.99737,-1386.3
97.5551,-47.4242,-1350.21
93.4785,-125.875,-1264.14
100.429,-121.946,-1218.63
100.465,-122.488,-1217.05
100.438,-123.152,-1217.31
100.388,-123.76,-1216.04
100.395,-124.418,-1214.42
100.434,-125.288,-1214
100.495,-125.774,-1212.6
100.604,-126.544,-1212.08
100.635,-127.485,-1210.7
100.038,-141.705,-1198
100.81,-141.667,-1191.27
100.773,-142.374,-1191.03
100.684,-142.881,-1189.2
100.671,-143.498,-1189.09
100.79,-144.233,-1189.37
100.765,-144.704,-1187.92
100.762,-145.275,-1187.7
100.761,-145.987,-1187.09
100.786,-146.653,-1186.42
100.763,-147.304,-1184.9
100.775,-148.84,-1184.35
100.861,-149.456,-1183.05
100.829,-150.1,-1181.3
100.877,-150.727,-1181.59
100.837,-151.101,-1179.42
100.869,-151.805,-1178.93
100.86,-152.364,-1178.41
100.868,-152.98,-1177.38
100.894,-154.534,-1176.22
100.982,-155.334,-1175.18
100.874,-157.18,-1171.87
109.857,99.3191,-1321.92
110.769,109.044,-1468.14
110.82,108.057,-1464.32
110.854,106.818,-1464.07
110.902,106.002,-1465.42
110.915,104.855,-1461.36
110.778,103.853,-1460.63
110.722,102.993,-1459.55
110.964,101.999,-1460.63
110.825,100.806,-1455.95
110.843,99.7032,-1454.32
110.566,97.2684,-1450.82
110.836,96.6615,-1453.15
110.597,93.7175,-1447.89
110.704,91.8748,-1445.64
110.912,90.9848,-1449.11
110.757,89.6707,-1443.09
110.738,87.7624,-1441.76
110.493,84.7087,-1435.2
110.742,83.9658,-1437.12
110.716,83.0222,-1435.45
110.583,81.8472,-1433.47
110.773,81.0486,-1436.46
110.663,79.8104,-1431.57
110.37,30.1589,-1415.67
97.6604,29.0621,-1411.36
97.7192,28.4313,-1410.45
97.7451,27.7719,-1409.43
97.78,27.0238,-1409.14
97.7511,26.1573,-1407.28
97.8085,25.362,-1407.84
97.8106,24.5359,-1405.43
97.8696,23.7503,-1404.62
97.9051,22.9619,-1404.65
97.8759,22.0815,-1402.59
97.9247,21.3597,-1401.36
97.9682,20.6353,-1401.24
97.9708,19.8983,-1399.25
98.0253,19.1655,-1398.91
98.0688,18.3553,-1397.97
98.0583,17.4826,-1396.2
98.0431,16.6815,-1394.9
98.1537,15.8882,-1394.98
98.176,15.0282,-1393.97
98.1884,14.2374,-1392.74
98.2213,13.4877,-1391.87
98.2568,12.8571,-1390.86
98.2338,12.0975,-1388.94
98.2222,11.3082,-1388.07
98.233,10.5411,-1387.26
98.2893,9.70391,-1386.7
98.2958,8.82388,-1386.07
96.7787,-46.7247,-1351.37
95.7158,-46.6589,-1324.27
93.4568,-100.679,-1278.7
98.0273,-123.748,-1231.36
99.7631,-122.86,-1216.25
99.7498,-123.494,-1216.33
99.7227,-124.045,-1214.54
99.7266,-124.986,-1214.37
99.7245,-126.12,-1212.34
99.9473,-126.983,-1212.03
99.9737,-127.871,-1210.98
99.4728,-141.609,-1200.44
100.087,-141.377,-1192.11
100.063,-142.07,-1191.06
99.9683,-142.848,-1190.43
100.045,-143.464,-1190.57
100.057,-144,-1188.87
100.123,-144.617,-1188.69
100.167,-145.189,-1188.15
100.161,-145.644,-1186.7
100.225,-146.404,-1186.82
100.174,-147.086,-1185.42
100.216,-147.771,-1185.14
100.191,-148.429,-1183.38
100.171,-149.073,-1182.55
100.219,-149.81,-1181.75
100.225,-150.419,-1181.13
100.222,-151.771,-1179.94
100.254,-152.231,-1178.7
100.276,-152.87,-1178.62
100.255,-153.457,-1176.48
100.285,-154.129,-1176.02
100.263,-154.999,-1175.36
100.251,-155.68,-1173.41
100.319,-156.706,-1172.41
108.951,99.1575,-1323.26
109.835,106.02,-1466.93
109.905,104.642,-1463.3
109.842,100.917,-1460.69
109.938,99.4627,-1453.88
109.893,97.2466,-1451.58
109.844,95.419,-1452.15
109.931,94.76,-1453.24
109.752,92.4893,-1447.35
109.801,91.3749,-1445.56
109.837,89.4645,-1445.32
109.871,88.3591,-1442.79
110.016,87.4315,-1444.26
109.769,86.3128,-1440.28
109.722,83.4489,-1437.15
109.92,82.6853,-1436.61
109.918,81.781,-1436.14
109.736,80.3531,-1431.64
109.536,29.326,-1417.24
96.9636,28.3308,-1410.14
97.0027,27.6726,-1410.79
96.9673,26.8243,-1408.49
96.9529,26.0373,-1407.61
96.9566,25.2196,-1406.29
96.9843,24.3832,-1404.87
97.0178,23.6247,-1403.82
97.1371,22.8086,-1404.81
97.0998,21.9501,-1401.85
97.1586,21.2522,-1402.07
97.1845,20.5412,-1400.98
97.1864,19.7711,-1400.15
97.202,19.0263,-1398.57
97.249,18.1975,-1397.59
97.2533,17.3337,-1396.88
97.3009,16.5453,-1395.27
97.3111,15.724,-1394.3
97.3347,14.8742,-1392.92
97.3889,14.0788,-1393.26
97.4071,13.3276,-1391.67
97.3816,12.6466,-1389.81
97.3743,11.9173,-1389.09
97.4304,11.208,-1389.21
97.4536,10.373,-1388.07
97.4543,9.52846,-1386.91
95.9477,-46.5854,-1352.02
95.0639,-46.7853,-1324.92
92.0599,-126.638,-1262.27
99.0642,-122.681,-1217.41
99.1128,-123.298,-1216.17
99.0714,-123.896,-1214.85
98.9999,-124.458,-1214.23
99.0019,-125.166,-1212.67
98.9839,-125.753,-1211.43
99.11,-126.545,-1212.26
99.1311,-127.23,-1210.84
99.1965,-128.171,-1210.47
98.7512,-139.854,-1201.01
99.5648,-139.752,-1194.31
99.3989,-140.432,-1193.48
99.2349,-141.111,-1192.22
99.2387,-141.861,-1192.02
99.2901,-142.529,-1191.36
99.3714,-143.302,-1191.14
99.3446,-143.688,-1188.23
99.4767,-144.532,-1188.83
99.4669,-145.085,-1188.14
99.4425,-145.622,-1187.2
99.4638,-146.197,-1186.14
99.4725,-146.84,-1185.23
99.5429,-147.586,-1185.49
99.488,-148.164,-1183.46
99.4733,-148.808,-1182.31
99.489,-150.254,-1180.79
99.4561,-150.709,-1179.17
99.5437,-151.574,-1178.89
99.578,-152.256,-1179.42
99.5653,-152.77,-1178.51
99.5632,-153.304,-1177.4
99.5846,-154.026,-1176.58
99.5555,-154.664,-1175.59
99.5067,-157.43,-1172.51
108.373,101.651,-1322.94
108.922,111.666,-1470.3
108.958,109.504,-1470.52
108.757,105.155,-1461.85
108.959,103.662,-1462.33
109.098,102.37,-1458.74
109.005,101.071,-1455.45
109.113,100.526,-1461.04
109.061,99.1917,-1458.72
109.025,98.018,-1452.76
109.096,96.967,-1453.16
108.942,96.2926,-1454.63
109.17,95.4569,-1454.7
109.025,94.2965,-1452.19
109.048,93.4875,-1451.26
108.932,92.4403,-1447.19
108.985,91.1975,-1446.07
108.879,88.1996,-1444.39
108.976,86.9996,-1443.07
108.879,85.6782,-1438.06
108.896,85.1515,-1439.86
108.959,84.2364,-1436.56
108.908,83.171,-1436.7
108.545,29.938,-1421.4
96.0931,28.8166,-1409.86
96.1439,28.1489,-1410.39
96.0906,27.4234,-1408.5
96.1652,26.7429,-1408.99
96.2146,25.8809,-1409.08
96.2097,24.9757,-1407.1
96.1736,24.2456,-1405.55
96.096,23.503,-1403.87
96.2426,22.6413,-1404.33
96.2794,21.8116,-1402.77
96.2755,21.0212,-1401.12
96.3462,20.3967,-1401.36
96.3489,19.6307,-1399.98
96.3432,18.8608,-1398.29
96.3811,18.0789,-1397.25
96.4539,17.1656,-1397.33
96.4511,16.3358,-1395.32
96.5098,15.5288,-1394.8
96.4995,14.709,-1393.67
96.5227,13.8884,-1391.85
96.5967,13.105,-1392.29
96.5983,12.4232,-1390.93
96.5939,11.7299,-1390
96.6211,11.0218,-1389.62
96.6441,10.1608,-1387.87
96.5961,9.3433,-1386.37
95.8509,-12.8334,-1369.08
96.2086,-45.5561,-1342.06
94.2793,-46.8495,-1328.18
94.3266,-47.3211,-1324.15
91.2764,-126.996,-1261.21
98.3205,-123.125,-1216.39
98.3891,-123.656,-1214.8
98.3396,-124.307,-1214.45
98.3458,-125.001,-1213.66
98.3925,-125.656,-1213.53
98.2926,-126.147,-1210.88
98.3669,-126.854,-1211.31
98.4419,-127.743,-1211.71
98.3655,-128.347,-1209.39
98.4242,-129.201,-1207.97
98.5272,-130.031,-1207.68
98.4316,-138.256,-1201.23
98.7351,-138.375,-1195.49
98.5971,-139.107,-1194.73
98.5008,-139.686,-1194.17
98.536,-140.31,-1194.44
98.5762,-140.914,-1193.35
98.624,-141.538,-1192.33
98.6397,-142.189,-1190.76
98.7426,-142.892,-1190.83
98.7495,-143.424,-1188.59
98.7771,-144.376,-1189.17
98.7438,-145.68,-1188.26
98.7697,-146.019,-1186.38
